# .PCD v0.7 - Point Cloud Data file format
VERSION 0.7
FIELDS x y z
SIZE 4 4 4
TYPE F F F
COUNT 1 1 1
WIDTH 1504
HEIGHT 1
VIEWPOINT 0 0 0 1 0 0 0
POINTS 1504
DATA ascii
7.7445407 -12.676232 -1.8069608
8.056284 -12.498506 -1.8088104
8.3642969 -12.313594 -1.8107296
8.6683741 -12.121555 -1.8127182
9.264204 -11.716362 -1.8168997
9.5556345 -11.503342 -1.8190914
10.124736 -11.056889 -1.8236723
10.075092 -9.5187244 -1.6860199
10.302231 -9.2733068 -1.6860887
10.73833 -8.7663374 -1.6862208
10.9471 -8.5050974 -1.6862842
11.149443 -8.2388582 -1.6863456
11.534619 -7.6921024 -1.6864625
11.717187 -7.4118853 -1.6865181
11.892934 -7.127317 -1.6865715
12.061768 -6.8385806 -1.6866229
12.223569 -6.5458379 -1.6866722
12.378237 -6.249259 -1.6867193
13.957622 -5.8216672 -1.839595
14.094316 -5.4834352 -1.8396368
14.342949 -4.7975149 -1.8397131
14.454784 -4.450232 -1.8397474
14.739424 -3.3935742 -1.8398353
14.886318 -2.6788278 -1.8398809
14.946757 -2.3190007 -1.8398999
15.075654 -1.2322028 -1.8399409
15.101054 -0.86821103 -1.8399493
15.117656 -0.503703 -1.8399551
15.114511 0.59073055 -1.8399565
15.0958 0.95512569 -1.8399516
15.06832 1.3189721 -1.8399441
14.870684 2.764497 -1.8398879
14.719736 3.4783788 -1.839844
14.631328 3.8323643 -1.8398181
13.126557 4.4748302 -1.6869671
12.894951 5.1024733 -1.6868987
12.767841 5.4119091 -1.6868613
10.62851 6.4530478 -1.5125052
10.074009 6.4539938 -1.4553337
9.0805712 6.4556894 -1.3552685
8.2130861 6.4571691 -1.2708473
7.4456201 6.4584742 -1.1989514
6.0584278 6.3770447 -1.0699705
5.050571 6.4635901 -0.99780327
4.1148047 6.465167 -0.93220562
3.0934374 6.4668832 -0.87200856
2.9040332 6.4672022 -0.86235112
2.718662 6.4675107 -0.85339773
2.1835594 6.4684043 -0.83044767
2.0112011 6.4686923 -0.82401478
1.8413965 6.4689746 -0.8181532
1.5084424 6.4695272 -0.80806959
1.3448389 6.4697995 -0.80381703
1.1692188 6.3954859 -0.79084873
1.0090381 6.3865709 -0.78650749
0.85173339 6.3868308 -0.7837798
0.6954248 6.3870883 -0.78152502
0.54777831 6.4802966 -0.7910828
0.39064452 6.4805551 -0.78973418
0.23395018 6.480813 -0.78884774
-0.23529784 6.4815831 -0.78894752
-0.86585933 6.4826145 -0.79555672
-1.0256201 6.4828758 -0.79839224
-1.1866113 6.4831381 -0.80171722
-2.5454102 6.4853406 -0.84747207
-2.7278419 6.4856334 -0.85586238
-2.9140282 6.4859338 -0.86492783
-3.1043162 6.4862413 -0.87470299
-3.299082 6.4865537 -0.88522172
-3.7035887 6.4872022 -0.9086563
-3.9142332 6.4875412 -0.92166454
-4.0947361 6.4307408 -0.92736071
-5.6902733 6.2838621 -1.031203
-5.9665723 6.277761 -1.053519
-6.2275391 6.2435789 -1.072686
-6.8748531 6.2577047 -1.1308266
-7.520874 6.2096691 -1.18639
-12.577661 5.6899557 -1.6792419
-12.710933 5.384769 -1.6792011
-13.066162 4.4513011 -1.6790924
-14.005395 4.3972168 -1.7856364
-14.466348 4.1613646 -1.8310708
-14.562284 3.8111534 -1.8310412
-14.91416 2.0311413 -1.8309317
-14.994555 1.3094702 -1.8309059
-15.021704 0.94741207 -1.8308969
-15.040136 0.58478272 -1.8308907
-15.049833 0.22182983 -1.830887
-15.050796 -0.14125428 -1.8308859
-14.967368 -1.5906634 -1.8309078
-14.873427 -2.3106847 -1.8309345
-14.81351 -2.6688113 -1.8309518
-14.745 -3.0253851 -1.8309716
-14.66791 -3.3802083 -1.830994
-14.385742 -4.4321518 -1.8310766
-14.274912 -4.7779369 -1.8311093
-14.028413 -5.4610486 -1.8311819
-13.892944 -5.797965 -1.8312219
-12.322475 -6.2242374 -1.6792932
-12.008613 -6.8116612 -1.6793863
-11.841171 -7.0995507 -1.679436
-11.66685 -7.3833323 -1.6794878
-10.902705 -8.4741583 -1.6797153
-10.695522 -8.7349997 -1.6797769
-10.482119 -8.9907923 -1.6798406
-10.262592 -9.2413712 -1.679906
-10.037036 -9.4865971 -1.6799732
-10.693686 -10.607087 -1.8321736
-10.435156 -10.862406 -1.8322508
-10.170556 -11.111425 -1.8323296
-9.9000092 -11.354014 -1.8324106
-9.6237011 -11.590051 -1.8324931
-9.3417673 -11.819342 -1.8325773
-9.0543556 -12.041801 -1.8326634
-5.1983008 -7.6560779 -1.1256806
-7.8536425 -12.860627 -1.8330226
-7.5415134 -13.046992 -1.8331159
-7.2249999 -13.225791 -1.8332108
-6.9042282 -13.396929 -1.8333068
-6.5794187 -13.560286 -1.8334042
-5.9184275 -13.863325 -1.8336023
-5.2435594 -14.134183 -1.8338046
-4.9013476 -14.257331 -1.8339071
-4.5562696 -14.372231 -1.8340107
-4.2085204 -14.478771 -1.8341149
-3.5057421 -14.666588 -1.834326
-3.1511328 -14.747734 -1.8344324
-2.4364843 -14.884279 -1.8346468
-1.3541113 -15.024142 -1.834972
-0.62802243 -15.073772 -1.8351902
-0.26425782 -15.085437 -1.8352995
0.099697262 -15.088325 -1.8354089
0.46363768 -15.082429 -1.8355185
0.82735348 -15.067746 -1.8356277
1.1906298 -15.044305 -1.8357371
2.6327734 -14.849751 -1.8345191
2.9666502 -14.665523 -1.8200713
3.9549854 -14.181948 -1.7909427
4.6397657 -13.991041 -1.7930357
4.9791064 -13.88403 -1.7941954
5.316206 -13.769367 -1.7954299
3.2024999 -7.7341251 -1.0182672
6.638999 -13.234863 -1.8011093
6.9625144 -13.082495 -1.8027121
7.2827926 -12.92273 -1.8043867
7.599741 -12.75565 -1.8061328
8.2229099 -12.399658 -1.809837
8.5288134 -12.210886 -1.8117937
9.1284857 -11.81216 -1.8159126
9.7109661 -11.385608 -1.8203012
9.9953613 -11.162091 -1.8225944
10.819242 -10.451653 -1.829859
10.198383 -9.3870363 -1.6860572
11.057041 -8.3620996 -1.6863176
11.255942 -8.0932417 -1.686378
12.3079 -6.3863335 -1.6866978
12.458706 -6.0877476 -1.6867437
13.230688 -6.0741305 -1.7709024
14.511592 -4.2618217 -1.839765
14.78246 -3.2015114 -1.8398486
14.855566 -2.8440502 -1.8398713
14.91999 -2.4849126 -1.8398914
14.975722 -2.1243258 -1.839909
15.060976 -1.3996222 -1.8399361
15.090439 -1.0359429 -1.8399458
15.12292 -0.30696228 -1.8399571
15.125937 0.057927243 -1.8399588
15.120136 0.42275757 -1.8399578
15.08208 1.1514777 -1.8399479
15.008828 1.8774976 -1.8399274
14.959072 2.2389569 -1.8399132
14.833388 2.9577429 -1.839877
14.757539 3.3146336 -1.839855
14.673096 3.6695921 -1.8398304
13.398931 4.4021215 -1.7155787
12.950991 4.9589429 -1.6869154
12.696181 5.577518 -1.6868401
12.258711 6.480444 -1.6867105
12.099589 6.7746701 -1.6868142
10.898901 6.4525852 -1.5406855
10.324111 6.453568 -1.4810113
9.7918653 6.4544773 -1.4265872
9.2970943 6.4553199 -1.3767931
8.8354197 6.4561081 -1.3311061
8.4031687 6.4568429 -1.2890805
6.9106884 6.4593835 -1.1506624
6.1944628 6.3768139 -1.0814133
5.9221334 6.3982859 -1.0605154
5.1670995 6.4633923 -1.006574
12.687675 0.94440794 -1.8392277
12.627246 1.5551977 -1.8392107
12.585961 1.8593121 -1.8391991
12.537373 2.1623449 -1.839185
12.270209 3.3600414 -1.8391073
11.99459 4.2382751 -1.8390263
10.813295 4.4183507 -1.6886483
10.688272 4.6712012 -1.6862344
10.450112 5.1810265 -1.6861639
10.187607 5.6787252 -1.6860861
9.9013958 6.1631446 -1.6860011
9.7495747 6.4000049 -1.6859559
9.430254 6.8632531 -1.6860774
8.4360447 6.4566331 -1.5357274
7.2807469 6.4586129 -1.406958
6.5258155 6.3771715 -1.3190401
5.925117 6.3771448 -1.2583919
5.1871433 6.4632373 -1.1980314
4.935957 6.4636645 -1.1756938
4.4599948 6.4644713 -1.1353476
4.0146093 6.4652271 -1.1001537
3.5950537 6.4659338 -1.0694896
2.6345165 6.4675498 -1.0095525
2.2776563 6.4681482 -0.99132407
2.1038134 6.4684386 -0.98330295
1.9326611 6.4687243 -0.97597283
1.597417 6.4692831 -0.9632985
1.2553858 6.3952465 -0.94215041
1.0943555 6.3863354 -0.93667495
0.93643552 6.3865967 -0.93312758
0.77961427 6.3868566 -0.93014747
0.63277829 6.4800611 -0.94122297
0.47533202 6.4803195 -0.93932056
0.31842285 6.4805784 -0.93797219
0.0054980465 6.4810934 -0.93691617
-1.0995849 6.4828992 -0.95056248
-1.2612256 6.4831629 -0.95478523
-1.5893115 6.483695 -0.96504086
-1.7562109 6.4839649 -0.97110516
-1.9253173 6.4842381 -0.97781861
-2.0968797 6.4845166 -0.98520285
-2.2711475 6.484797 -0.9932819
-2.4484131 6.4850817 -1.0020838
-2.8130662 6.4856687 -1.0219705
-3.0010986 6.4859691 -1.0331286
-3.5923243 6.4869165 -1.0719494
-3.7997997 6.487246 -1.086838
-4.1784668 6.404067 -1.1054142
-4.564702 6.3087182 -1.1256939
-4.7968259 6.3035922 -1.145097
-5.0106931 6.265101 -1.1597306
-5.2588329 6.2596216 -1.1818587
-6.0979395 6.2748618 -1.2648839
-6.3590722 6.2353258 -1.2874703
-6.7017722 6.261528 -1.3258814
-7.0264645 6.2543564 -1.3598654
-7.3296041 6.2138953 -1.389115
-7.7295456 6.2388315 -1.4359632
-8.1118946 6.2303891 -1.478641
-8.9032278 6.1791453 -1.566674
-9.8560448 6.1581898 -1.680061
-10.402466 5.1794567 -1.6798947
-10.639692 4.6715403 -1.6798223
-10.775449 4.424192 -1.6838771
-11.492231 4.3977389 -1.7788256
-12.039111 3.9526854 -1.8318
-12.292881 3.071698 -1.8317219
-12.63352 0.96197933 -1.831615
-12.652998 0.65695924 -1.8316085
-12.665146 0.35156065 -1.8316041
-12.667338 -0.25966185 -1.8316021
-12.657427 -0.56513917 -1.8316046
-12.615513 -1.1749303 -1.8316158
-12.443965 -2.3849566 -1.8316648
-12.382924 -2.6844506 -1.8316826
-12.314712 -2.9823906 -1.8317024
-12.067314 -3.8651767 -1.8317748
-11.867241 -4.4427981 -1.831834
-11.756821 -4.7278323 -1.8318664
-11.384872 -5.5658951 -1.8319764
-11.009296 -6.0568328 -1.816481
-10.427852 -6.0691118 -1.7442017
-9.7507858 -6.3235769 -1.6800662
-9.2688179 -7.012661 -1.6802096
-8.9203758 -7.4519811 -1.6803133
-8.7383156 -7.665235 -1.6803677
-8.5511618 -7.8740411 -1.6804235
-7.9602733 -8.4726343 -1.6805999
-7.542944 -8.8473368 -1.6807245
-7.1080222 -9.2015314 -1.6808544
-5.2961669 -7.5858927 -1.3374531
-5.1004539 -7.6945395 -1.3345222
-6.4892673 -10.896796 -1.833437
-5.9567041 -11.198064 -1.8335965
-5.1321044 -11.601027 -1.8338435
-4.5670505 -11.836134 -1.8340129
-4.2804346 -11.943413 -1.8340988
-3.9912889 -12.04375 -1.8341855
-3.4061327 -12.223398 -1.8343611
-3.1104443 -12.302599 -1.8344498
-2.8129246 -12.374648 -1.8345392
-2.5137401 -12.439509 -1.8346288
-1.9110693 -12.547503 -1.8348098
-1.6079345 -12.590572 -1.834901
-0.69344723 -12.675783 -1.8351756
-0.38750976 -12.689462 -1.8352675
-0.081308588 -12.695754 -1.8353596
0.22495605 -12.694647 -1.8354517
1.1424463 -12.647065 -1.8357277
1.7512354 -12.578506 -1.8359109
2.6565576 -12.420785 -1.8361834
2.9555418 -12.353701 -1.8362733
3.2354541 -12.213877 -1.8265623
3.5009863 -12.03554 -1.811996
3.7921581 -11.953522 -1.8128942
4.0815525 -11.864874 -1.8138576
5.4969578 -11.323497 -1.8196329
6.0458202 -11.061902 -1.8223825
6.3159571 -10.921635 -1.8238494
6.5830612 -10.775126 -1.8253771
6.8470116 -10.622434 -1.826965
6.7802196 -9.4812212 -1.6850294
7.2301559 -9.1439247 -1.6851654
7.4489207 -8.9672213 -1.6852316
7.8733201 -8.5981922 -1.68536
8.0787306 -8.4061012 -1.6854221
8.6663227 -7.8007646 -1.6855999
9.702651 -6.4704151 -1.6859144
9.8561325 -6.2346702 -1.6859611
11.213022 -6.0046821 -1.8387694
11.490117 -5.4571638 -1.8388541
11.618637 -5.1785383 -1.8388933
11.855336 -4.6123538 -1.8389655
12.325141 -3.1526058 -1.8391099
12.463154 -2.5545802 -1.8391527
12.572075 -1.950567 -1.8391867
12.615576 -1.6467481 -1.8392004
12.680439 -1.0364306 -1.8392214
12.701801 -0.73027039 -1.8392283
12.721411 0.1900769 -1.8392363
12.71311 0.49687561 -1.8392342
12.697397 0.80337644 -1.8392303
12.605888 1.7193627 -1.8392047
12.560674 2.0229199 -1.8391917
12.448291 2.6262951 -1.8391593
11.120502 4.4003282 -1.7288792
10.250205 5.5652528 -1.6861047
10.112734 5.8107333 -1.6860638
9.9693651 6.0528159 -1.6860212
9.5056105 6.7578268 -1.6860211
9.3405123 6.9856491 -1.6861421
7.8179979 6.4576917 -1.4658811
7.4454541 6.4583311 -1.4248312
7.0930028 6.4589329 -1.3868033
6.3573976 6.3764062 -1.3016586
6.0583057 6.376915 -1.2715536
5.8492479 6.4621115 -1.2600337
5.5720553 6.4625831 -1.233551
5.3061132 6.4630356 -1.2088478
5.0504737 6.463469 -1.1857922
4.8042674 6.4638877 -1.1642628
4.5667038 6.464292 -1.1441568
4.33707 6.4646802 -1.1253768
3.8990917 6.4654212 -1.0914596
3.485791 6.4661179 -1.0619272
3.2871923 6.4664536 -1.0486513
3.0933838 6.4667797 -1.0362988
2.9039843 6.4670968 -1.0248241
2.7186182 6.4674096 -1.0141821
2.011167 6.4685922 -0.97926414
1.5084229 6.4694309 -0.9603163
1.3448144 6.4697018 -0.95526189
1.1691992 6.3953891 -0.93984938
0.69541502 6.3869958 -0.92877072
0.39063475 6.4804602 -0.93852592
0.077509761 6.4809752 -0.93696547
-0.39203611 6.4817452 -0.93872184
-0.70712888 6.4822607 -0.9426443
-0.86584473 6.4825191 -0.9454447
-1.0256006 6.4827781 -0.94881427
-1.3490235 6.4833055 -0.95730954
-1.5131201 6.4835715 -0.96245998
-1.6790771 6.48384 -0.96823299
-1.8471435 6.4841123 -0.97464406
-2.017539 6.484386 -0.98171675
-2.3663769 6.4849496 -0.99793822
-3.1042676 6.486135 -1.0395008
-3.2990234 6.4864464 -1.0520018
-3.4986279 6.4867673 -1.0654341
-3.914165 6.4874291 -1.0953081
-4.0947852 6.4308224 -1.1021104
-4.2984276 6.4042578 -1.1150091
-4.9254246 6.3007541 -1.1561261
-5.966567 6.2777624 -1.2520273
-6.5230322 6.2317052 -1.3041372
-6.8748584 6.2577062 -1.343901
-7.520874 6.2096715 -1.4099293
-8.3277979 6.2256198 -1.5030993
-9.1957464 6.2064548 -1.6038018
-9.7871284 6.2674036 -1.6800821
-9.9351759 6.0293322 -1.680037
-10.077466 5.7877769 -1.6799937
-10.344389 5.2947755 -1.6799123
-10.468843 5.0436058 -1.6798745
-10.587226 4.7895117 -1.6798384
-10.699438 4.532639 -1.6798041
-12.089409 3.7956653 -1.8317846
-12.331718 2.9114685 -1.8317099
-12.554379 1.709765 -1.8316405
-12.591889 1.4064282 -1.8316283
-12.622094 1.1022869 -1.8316188
-12.644941 0.79750854 -1.8316112
-12.660479 0.49226317 -1.8316058
-12.668628 0.18673339 -1.8316027
-12.662895 -0.42446533 -1.8316032
-12.627764 -1.0346887 -1.8316125
-12.599189 -1.3389807 -1.8316205
-12.5633 -1.6425158 -1.8316305
-12.411923 -2.5466869 -1.8316741
-12.274937 -3.142396 -1.831714
-12.195713 -3.4375992 -1.8317372
-12.109419 -3.7308323 -1.8317626
-11.808545 -4.5968871 -1.8318511
-11.694428 -4.8804593 -1.8318849
-11.311625 -5.7136383 -1.8319981
-11.170781 -5.9849553 -1.83204
-10.689815 -6.063601 -1.7766383
-9.5096874 -6.6815062 -1.6801379
-9.1769381 -7.1327972 -1.6802369
-9.0024948 -7.3523116 -1.6802889
-8.6379929 -7.7784319 -1.6803976
-7.6406589 -8.7628298 -1.6806953
-7.4273434 -8.9449244 -1.6807591
-6.9878516 -9.2934465 -1.6808904
-6.3470654 -10.98057 -1.8334795
-6.0806394 -11.130965 -1.8335594
-5.2605662 -11.543048 -1.8338051
-4.9808397 -11.667115 -1.8338888
-4.1247654 -11.998392 -1.8341454
-3.8343358 -12.094977 -1.8342326
-3.5416455 -12.184536 -1.8343203
-3.24687 -12.267007 -1.8344089
-2.9501805 -12.342346 -1.8344979
-2.3517284 -12.471498 -1.8346776
-2.0503223 -12.525205 -1.8347681
-1.1394677 -12.64257 -1.8350416
-0.83421385 -12.667002 -1.8351333
-0.52846187 -12.684078 -1.8352252
0.08388672 -12.696074 -1.8354094
0.39013672 -12.690993 -1.8355013
0.69616699 -12.678528 -1.8355933
2.217207 -12.505763 -1.8360511
2.818037 -12.38551 -1.8362319
3.1114209 -12.295756 -1.8335514
3.367866 -12.076617 -1.8124373
3.6582568 -11.992125 -1.8124723
4.236865 -11.814318 -1.8144038
5.0894823 -11.498405 -1.817782
6.1918993 -10.987017 -1.8231663
6.4604297 -10.843377 -1.8246661
6.9880123 -10.537516 -1.8278462
6.9031639 -9.3923998 -1.6850665
7.1279979 -9.2235317 -1.6851345
7.3486962 -9.0492649 -1.6852012
7.5651364 -8.8697271 -1.6852667
8.1875877 -8.3004169 -1.685455
8.3857174 -8.1007996 -1.6855149
8.5789747 -7.8964543 -1.6855736
8.9504242 -7.4740129 -1.6856861
9.1283884 -7.256176 -1.68574
9.6300535 -6.5777411 -1.6858923
11.560278 -5.3072586 -1.8388754
11.685176 -5.0269794 -1.8389136
12.115981 -3.8780768 -1.8390455
12.289282 -3.2893322 -1.8390989
12.3652 -2.9919837 -1.8391223
12.43393 -2.6928813 -1.8391436
12.54957 -2.090122 -1.8391796
12.59645 -1.7868218 -1.8391944
12.66811 -1.1772522 -1.8392172
12.692895 -0.87135434 -1.8392254
12.722744 0.048723754 -1.8392363
12.705556 0.6622473 -1.8392324
12.685844 0.96853083 -1.8392271
12.533247 2.1861706 -1.8391839
12.412983 2.7880266 -1.839149
12.086 3.9707654 -1.8390532
11.986518 4.2610621 -1.8390238
11.469316 4.3916111 -1.7754143
10.67936 4.6915159 -1.6862319
10.562871 4.947638 -1.6861973
10.440225 5.200881 -1.686161
10.176786 5.6980748 -1.6860828
9.4172411 6.8812108 -1.686087
8.4029684 6.4566894 -1.5319382
5.9220753 6.3982239 -1.2603271
5.6982713 6.462368 -1.2455194
4.9165478 6.4636974 -1.1739957
10.938437 0.81420225 -1.8387015
10.915566 1.0778075 -1.8386952
10.850771 1.6029742 -1.8386768
10.808882 1.8642291 -1.8386648
10.706221 2.3833098 -1.8386351
10.578609 2.8968189 -1.8385977
10.505532 3.1511059 -1.8385763
10.426348 3.4035504 -1.838553
10.24978 3.9023144 -1.838501
10.15249 4.1483483 -1.8384722
9.4357128 4.3978257 -1.7450916
8.5366402 5.3136549 -1.685589
8.2700434 5.7188964 -1.6855096
8.1295013 5.9165735 -1.6854678
7.9842086 6.1107821 -1.6854246
7.8342819 6.3014269 -1.6853799
7.6797948 6.4883862 -1.6853338
7.3584228 6.851666 -1.6854452
5.9249949 6.3770151 -1.4591879
5.719995 6.4622045 -1.4466779
5.4481201 6.4626684 -1.4169406
4.6937351 6.4639573 -1.3391026
4.4599118 6.4643555 -1.3165087
4.2337208 6.4647422 -1.2954071
4.0145359 6.4651132 -1.2757001
3.8018017 6.4654746 -1.2573059
3.1972997 6.4664974 -1.209255
3.0055761 6.4668212 -1.1954054
2.8180809 6.4671373 -1.1825507
1.9326319 6.4686241 -1.1317062
1.763916 6.4689074 -1.123983
1.5973974 6.4691844 -1.1170096
1.0943457 6.38624 -1.0861385
0.77960449 6.3867626 -1.0785689
0.6327734 6.4799643 -1.0914121
0.47532225 6.4802246 -1.0892075
0.31841797 6.4804845 -1.0876433
0.16186523 6.480741 -1.0867143
0.0054980465 6.4809985 -1.086419
-0.46437988 6.4817677 -1.089332
-0.6218701 6.4820251 -1.0915804
-0.93927246 6.4825425 -1.098025
-1.2612011 6.4830651 -1.1071379
-1.589287 6.4835958 -1.1190302
-2.2711132 6.4846945 -1.151778
-3.0010545 6.4858651 -1.1979816
-3.1933398 6.4861703 -1.2119168
-3.3902831 6.4864855 -1.2269017
-3.5922606 6.4868064 -1.2429956
-4.5646973 6.3087206 -1.305336
-4.7968211 6.3035936 -1.3278383
-5.0106983 6.265101 -1.344805
-5.2588282 6.2596226 -1.3704683
-5.8160691 6.2810874 -1.4349751
-6.0979443 6.2748618 -1.4667424
-6.3590622 6.2353272 -1.4929309
-7.0264549 6.2543588 -1.5768808
-7.8017282 6.2971215 -1.680679
-8.0959129 5.9132223 -1.6805897
-8.8629198 4.6830149 -1.6803565
-9.9936762 4.3878894 -1.8296261
-10.111796 4.1517978 -1.8323798
-10.299936 3.6591821 -1.8323224
-10.385054 3.4096251 -1.8322963
-10.46415 3.1580956 -1.8322718
-10.537138 2.9047289 -1.8322494
-10.604018 2.6496973 -1.8322287
-10.664746 2.3931153 -1.8322099
-10.767553 1.8759576 -1.8321779
-10.845361 1.3544562 -1.8321534
-10.874819 1.0924505 -1.832144
-10.897968 0.82982296 -1.8321365
-10.914761 0.56670594 -1.8321308
-10.925249 0.30326477 -1.8321272
-10.929379 0.039644774 -1.8321253
-10.882412 -1.0135205 -1.8321372
-10.820976 -1.5371941 -1.8321546
-10.78082 -1.7977759 -1.8321661
-10.734375 -2.0573089 -1.8321795
-10.681747 -2.3156579 -1.8321948
-10.622876 -2.5726581 -1.8322119
-10.326084 -3.584307 -1.832299
-10.141514 -4.078258 -1.8323535
-10.040351 -4.3217707 -1.8323834
-9.9333591 -4.5627766 -1.832415
-9.820591 -4.8011379 -1.8324484
-9.7021046 -5.0367203 -1.8324835
-9.5779734 -5.2693872 -1.8325204
-9.4482861 -5.4990025 -1.8325589
-9.1725092 -5.9485464 -1.8326408
-8.868701 -6.0603309 -1.8006315
-7.8470163 -6.2401996 -1.6806387
-7.5373435 -6.6117487 -1.6807311
-7.0401659 -7.1400805 -1.6808794
-6.8660984 -7.3080363 -1.6809313
-6.6880517 -7.4717717 -1.6809845
-6.506074 -7.6311669 -1.6810387
-6.320322 -7.7861419 -1.6810943
-6.1308789 -7.9365869 -1.6811509
-5.2881589 -7.5744147 -1.5485443
-5.0927491 -7.6829233 -1.5451584
-5.3384767 -8.4915466 -1.681388
-4.2787452 -9.0739098 -1.6817055
-3.3851805 -9.4454403 -1.6819732
-3.156538 -9.524724 -1.6820419
-2.6825731 -10.610245 -1.834582
-2.425962 -10.672308 -1.8346591
-1.9085937 -10.777805 -1.8348144
-1.3866992 -10.858241 -1.8349711
-1.1244239 -10.888999 -1.8350499
-0.86148924 -10.913419 -1.8351289
-0.59801269 -10.931492 -1.8352081
-0.070117183 -10.948562 -1.8353667
1.2480273 -10.879802 -1.8357632
2.2908301 -10.710789 -1.8360771
2.5486279 -10.652851 -1.8361547
2.804961 -10.588716 -1.8362319
3.3126366 -10.442 -1.8363847
3.2677929 -9.4993114 -1.6839733
3.4961133 -9.4181089 -1.6840422
4.1684523 -9.1417675 -1.684245
4.3879199 -9.0389099 -1.684311
5.0305958 -8.6989717 -1.684505
5.2391553 -8.5754166 -1.6845679
5.4446826 -8.4468613 -1.68463
5.8461475 -8.1750422 -1.6847514
6.0418406 -8.0319281 -1.6848104
6.422617 -7.7317247 -1.6849257
6.6074557 -7.5747943 -1.6849815
7.1385546 -7.0778809 -1.6851422
7.3074169 -6.9038444 -1.6851934
7.7881784 -6.3579454 -1.685339
8.2297945 -6.0813861 -1.715363
9.0907373 -6.062346 -1.8316697
9.2671432 -5.8620853 -1.8381847
10.017031 -4.4646869 -1.8384132
10.121983 -4.221839 -1.8384452
10.31416 -3.7288866 -1.8385042
10.401259 -3.4790692 -1.8385309
10.48228 -3.2272067 -1.8385557
10.557207 -2.973459 -1.8385787
10.79501 -1.9425857 -1.8386525
10.876269 -1.4197204 -1.8386781
10.907416 -1.1569744 -1.838688
10.962631 -0.36526245 -1.8387061
10.946812 0.69261533 -1.8387038
10.867944 1.4823194 -1.8386817
10.828959 1.7440234 -1.8386706
10.783676 2.00471 -1.8386575
10.674253 2.5224047 -1.8386258
10.6102 2.7791142 -1.838607
10.463569 3.2875128 -1.8385639
10.198042 4.035316 -1.8384857
10.097583 4.2800622 -1.838456
9.6997948 4.3903918 -1.7848005
9.1408396 4.4060655 -1.7010169
8.9506397 4.5836558 -1.685712
8.7188129 5.0097914 -1.6856431
8.4666653 5.4242115 -1.6855682
8.1948338 5.825953 -1.6854873
8.0517092 6.021771 -1.6854446
7.4339256 6.7693372 -1.6854063
7.2688379 6.9470162 -1.6854898
6.3572607 6.3762741 -1.5093552
5.8491354 6.4619837 -1.4610871
4.8041797 6.4637694 -1.3500384
4.5666208 6.4641733 -1.3267235
3.8990185 6.4653101 -1.2656196
3.6895409 6.4656653 -1.2478992
3.4857323 6.4660106 -1.2313755
3.0933349 6.4666734 -1.2016577
2.7185791 6.4673047 -1.1760128
2.0111377 6.4684925 -1.1355232
1.8413378 6.4687781 -1.1274461
1.1691846 6.3952942 -1.0898201
1.0090088 6.3863816 -1.0838372
0.69540036 6.3869004 -1.0769738
0.23394042 6.4806237 -1.0870637
-0.078837886 6.4811363 -1.0865222
-0.54924804 6.4819064 -1.0904647
-0.70711911 6.4821644 -1.0930595
-1.5131005 6.4834728 -1.1160377
-2.1904931 6.4845653 -1.1473618
-2.7277489 6.4854283 -1.179409
-3.1042187 6.4860287 -1.2053698
-3.9140966 6.4873166 -1.2700821
-4.0948439 6.4309058 -1.278007
-4.5264206 6.4045043 -1.3146641
-4.9254246 6.3007555 -1.3406274
-5.143374 6.2621727 -1.3584284
-5.4252734 6.2897167 -1.3923956
-5.6902733 6.2838645 -1.4210801
-5.966567 6.2777634 -1.4518335
-6.2276659 6.2436986 -1.4782759
-7.7313819 6.383502 -1.6807003
-7.8828902 6.1949816 -1.6806544
-8.0298195 6.0028806 -1.6806097
-8.1720505 5.8072972 -1.6805667
-8.3095503 5.6083546 -1.6805248
-8.4422064 5.4061584 -1.6804845
-8.5699606 5.2008252 -1.6804457
-8.6927242 4.9924793 -1.6804082
-8.8104296 4.7812462 -1.6803725
-9.1557131 4.4109778 -1.7036221
-10.065126 4.2639184 -1.8323942
-10.258716 3.7734289 -1.832335
-10.346616 3.5248218 -1.8323081
-10.504282 3.0216393 -1.8322595
-10.573989 2.7673638 -1.832238
-10.637539 2.5114782 -1.8322184
-10.746089 1.9954876 -1.8321846
-10.829609 1.4748785 -1.8321584
-10.862045 1.2132123 -1.8321481
-10.88809 0.95085752 -1.8321397
-10.92121 0.42463499 -1.8321285
-10.928257 0.16108093 -1.832126
-10.911323 -0.62953794 -1.8321294
-10.892988 -0.89254451 -1.8321344
-10.706767 -2.19682 -1.8321874
-10.650747 -2.4544542 -1.8322037
-10.445737 -3.2182646 -1.8322637
-10.278647 -3.7183993 -1.8323131
-10.186123 -3.9652975 -1.8323404
-9.9833593 -4.4520903 -1.8324002
-9.8732471 -4.6916842 -1.8324329
-9.7573824 -4.928576 -1.8324672
-9.5087156 -5.3936386 -1.8325409
-9.2379198 -5.8461986 -1.8326215
-9.0765133 -6.0555115 -1.8290516
-7.9157763 -6.1525559 -1.6806183
-7.610249 -6.5275116 -1.6807092
-7.4508004 -6.7093725 -1.6807568
-6.7705469 -7.3968868 -1.6809599
-6.5903711 -7.5582891 -1.6810136
-6.2185841 -7.8678489 -1.6811248
-5.8323045 -8.1591644 -1.6812403
-5.1826415 -7.6330152 -1.5466044
-5.2276416 -8.5604486 -1.6814212
-5.0198092 -8.6843786 -1.6814834
-4.5954785 -8.9170418 -1.6816106
-4.3792233 -9.0256481 -1.6816754
-4.1604004 -9.1290054 -1.6817409
-3.7155957 -9.319768 -1.6818742
-3.0544825 -10.50852 -1.8344705
-2.5443456 -10.644489 -1.8346236
-2.2869384 -10.70322 -1.8347007
-2.0281787 -10.755722 -1.8347784
-1.7682323 -10.801965 -1.8348565
-1.2453222 -10.875621 -1.8350135
-0.98268062 -10.902958 -1.8350924
-0.71941894 -10.923956 -1.8351716
-0.45574218 -10.938602 -1.8352509
-0.19175781 -10.946892 -1.8353301
0.072348632 -10.948801 -1.8354095
0.3364453 -10.944341 -1.835489
1.1270459 -10.892787 -1.8357267
1.6512207 -10.826688 -1.8358845
2.1716259 -10.735361 -1.8360412
2.6870799 -10.61904 -1.8361964
3.1963525 -10.477973 -1.8363497
3.2018602 -7.7325735 -1.4030014
4.5052586 -8.9812403 -1.6843464
4.7207861 -8.8702927 -1.6844115
5.5542383 -8.3754673 -1.6846632
5.7548532 -8.2393427 -1.6847237
6.1459227 -7.952785 -1.6848419
6.3362155 -7.802484 -1.6848994
6.8844776 -7.3246331 -1.6850653
7.2301707 -6.9845181 -1.6851699
7.3967624 -6.8082914 -1.6852205
7.5590572 -6.6280808 -1.6852696
7.7169528 -6.4440093 -1.6853175
8.0465384 -6.0853467 -1.6911564
9.3427877 -5.7410779 -1.8382078
9.478755 -5.5141759 -1.8382492
9.6092234 -5.2840381 -1.8382888
9.734087 -5.0508299 -1.8383268
9.853281 -4.8146472 -1.8383633
9.966733 -4.5756693 -1.8383977
10.074375 -4.3340092 -1.8384308
10.272026 -3.8432279 -1.8384912
10.445713 -3.343456 -1.8385444
10.595063 -2.8358605 -1.8385905
10.660502 -2.5795026 -1.8386106
10.719736 -2.3216283 -1.8386291
10.819404 -1.8019634 -1.8386601
10.859799 -1.5404755 -1.8386728
10.893862 -1.2780914 -1.8386836
10.921572 -1.0149438 -1.8386924
10.942924 -0.7512207 -1.8386995
10.964434 0.30656433 -1.8387082
10.936865 0.83499998 -1.838701
10.913486 1.0985559 -1.8386946
10.701665 2.4036577 -1.8386337
10.242324 3.9217932 -1.8384988
10.144585 4.1676378 -1.83847
9.9761229 4.3825779 -1.8265692
9.3916941 4.3990588 -1.7384934
9.0010252 4.4839673 -1.6857268
8.7740278 4.9126549 -1.6856594
8.6527777 5.1227574 -1.6856234
8.2591457 5.734602 -1.6855063
8.1182127 5.9320078 -1.6854644
7.972568 6.1259408 -1.6854211
7.8222752 6.3162961 -1.6853763
7.5085006 6.6861596 -1.6853665
6.1942086 6.376554 -1.4902136
5.9220114 6.3981605 -1.4614455
5.4271531 6.4627051 -1.4146826
5.166904 6.4631491 -1.3870885
9.6042576 0.71489257 -1.8383001
9.5841942 0.9463464 -1.8382946
9.5585451 1.1772479 -1.8382874
9.5273285 1.4074597 -1.8382784
9.4482269 1.8652831 -1.8382558
9.4004192 2.0926239 -1.8382418
9.3471384 2.3187451 -1.8382263
9.2883978 2.5435071 -1.838209
8.9143257 3.6424267 -1.838099
8.7280178 4.0679808 -1.8380438
8.6272268 4.2772617 -1.838014
7.6062012 4.4836154 -1.6853074
7.4956493 4.6656847 -1.6852746
7.3807812 4.8450341 -1.6852404
7.261621 5.0215502 -1.685205
7.1382227 5.1951303 -1.6851683
7.0106788 5.3656774 -1.6851302
6.6038718 5.8581324 -1.6850091
6.4604883 6.0155673 -1.6849662
6.3133445 6.1694932 -1.6849223
5.8503175 6.6093969 -1.68481
5.6893897 6.7488194 -1.684866
5.5251026 6.8843017 -1.684918
5.3575974 7.0157652 -1.6849662
4.6936474 6.46384 -1.5247629
4.2336473 6.4646263 -1.4750085
4.0144677 6.4650011 -1.4525703
3.393584 6.4660568 -1.393872
3.1972461 6.4663916 -1.3769141
3.0055225 6.4667163 -1.3611459
2.8180323 6.4670334 -1.3465081
2.6344287 6.4673438 -1.3329501
1.9325976 6.468524 -1.2886159
1.7638867 6.4688072 -1.279822
1.4328076 6.4693589 -1.2647697
0.77958983 6.3866663 -1.2281107
0.31841308 6.4803882 -1.2384436
0.16186035 6.4806442 -1.2373859
-0.9392578 6.4824448 -1.2502645
-1.2611865 6.4829674 -1.2606421
-1.4243456 6.4832311 -1.2670071
-1.5892675 6.4834971 -1.2741824
-2.4483397 6.4848776 -1.3230898
-3.0010009 6.4857578 -1.364078
-3.1932862 6.4860644 -1.3799462
-4.1783252 6.4038401 -1.45952
-4.4023776 6.4041929 -1.4833763
-5.2588329 6.259624 -1.5605055
-5.984282 6.4627891 -1.6812257
-6.2886667 6.1663218 -1.6811335
-6.4353952 6.0126781 -1.6810892
-6.5783834 5.8555479 -1.6810458
-6.7175436 5.6950254 -1.6810037
-6.9840574 5.3641639 -1.6809229
-7.2342968 5.0208693 -1.6808468
-7.4677148 4.6659336 -1.680776
-7.8748093 4.4071045 -1.7225001
-8.3155174 4.3937731 -1.7951881
-8.6962299 4.0711789 -1.8328053
-8.8821726 3.6469285 -1.8327485
-8.9674416 3.4315753 -1.8327224
-9.0474806 3.2142296 -1.8326979
-9.1222553 2.9950261 -1.832675
-9.3679934 2.1021338 -1.8325992
-9.4158983 1.875537 -1.8325844
-9.4952631 1.4192266 -1.8325595
-9.5525684 0.9596234 -1.8325413
-9.5728903 0.72892576 -1.8325346
-9.5985451 -0.19675475 -1.832525
-9.5910006 -0.42822754 -1.8325267
-9.5779047 -0.65945005 -1.8325301
-9.5592327 -0.89028865 -1.8325354
-9.5350246 -1.1206133 -1.8325421
-9.4699755 -1.5791821 -1.8325607
-9.4291792 -1.8071606 -1.8325725
-9.3829145 -2.0340869 -1.8325858
-8.991992 -3.36638 -1.8327006
-8.9082956 -3.5823386 -1.8327253
-8.4131985 -4.6285772 -1.8328718
-8.1804829 -5.0291309 -1.8329409
-6.333086 -6.1203842 -1.6810941
-6.1837745 -6.2715321 -1.6811385
-5.8744431 -6.5628233 -1.681231
-5.7145896 -6.7028055 -1.6812788
-5.5514011 -6.8388968 -1.6813275
-5.384995 -6.9710169 -1.6813774
-5.2154393 -7.0990934 -1.6814281
-4.8672853 -7.3428154 -1.6815321
-4.6889062 -7.4583187 -1.6815856
-4.5077829 -7.5695004 -1.6816398
-4.137754 -7.7786064 -1.6817507
-3.7580469 -7.9696479 -1.6818643
-3.5648339 -8.0582533 -1.6819223
-2.9731493 -8.2957973 -1.6820996
-2.3657813 -8.4899797 -1.6822817
-1.9537305 -8.5948362 -1.6824054
-1.5370507 -8.6796999 -1.6825305
-1.1167382 -8.7443838 -1.6826568
-0.90551758 -8.7691031 -1.6827202
-0.69376951 -8.7887287 -1.6827837
-0.48159179 -8.8032379 -1.6828475
-0.26912597 -8.8126326 -1.6829115
-0.056474607 -8.8168964 -1.6829754
0.36884275 -8.8100271 -1.6831033
0.79336911 -8.7826548 -1.683231
1.0050244 -8.7612934 -1.6832947
1.2161083 -8.7348289 -1.6833581
2.6674902 -8.4083929 -1.6837951
2.8696434 -8.3419075 -1.6838561
3.0701365 -8.2705622 -1.6839166
4.4175 -7.638792 -1.684323
4.600615 -7.5302629 -1.6843783
4.7810788 -7.4173365 -1.6844327
5.1335545 -7.1785836 -1.6845392
5.8019824 -6.6514001 -1.6847414
6.1163621 -6.3642035 -1.6848364
6.2682667 -6.2149863 -1.6848825
7.0799122 -6.070138 -1.7800893
7.4256639 -6.0620055 -1.8297148
7.6027002 -5.9067483 -1.8376843
7.879077 -5.5334702 -1.8377682
8.3762398 -4.7490168 -1.8379192
8.4885006 -4.5456705 -1.8379534
8.5958252 -4.339674 -1.8379862
8.6981592 -4.1311378 -1.8380173
8.7954102 -3.9202011 -1.8380471
8.887558 -3.7069616 -1.8380752
8.9745064 -3.4915602 -1.8381019
9.1327047 -3.054755 -1.8381503
9.269599 -2.6108041 -1.8381923
9.4783545 -1.7056521 -1.8382571
9.5168114 -1.4765393 -1.8382691
9.5497017 -1.2465576 -1.8382795
9.5770407 -1.0158582 -1.8382882
9.6255121 -0.32070982 -1.8383044
9.6297894 0.14388305 -1.8383065
9.6116209 0.608136 -1.8383021
9.5941401 0.83979976 -1.8382974
9.5710402 1.0709741 -1.8382909
9.5081635 1.531305 -1.8382729
9.4684029 1.7601984 -1.8382615
9.3161182 2.4401598 -1.8382171
9.1874075 2.8865581 -1.8381795
9.1150045 3.1072917 -1.8381582
8.9543066 3.5431774 -1.8381108
8.8661079 3.7580786 -1.8380847
8.7727537 3.9707897 -1.838057
8.6742678 4.1811728 -1.838028
8.5558052 4.3814697 -1.8347948
7.4342284 4.7627721 -1.6852564
7.3170362 4.9406052 -1.6852216
6.9401903 5.4563756 -1.6851093
6.8063965 5.6220651 -1.6850694
6.5270066 5.9434862 -1.6849861
6.2324362 6.2510314 -1.6848981
5.9233885 6.5439706 -1.6848059
5.6011767 6.8223886 -1.6848946
4.8040915 6.4636497 -1.5372142
4.3369141 6.4644494 -1.4858733
4.1145897 6.464829 -1.4627149
3.8989551 6.4651966 -1.441094
3.4856737 6.4659009 -1.4021013
3.2870848 6.466239 -1.3845735
3.093286 6.466567 -1.3682654
2.1834569 6.4681029 -1.303056
1.8413086 6.4686766 -1.2837654
1.6738135 6.4689584 -1.2754351
1.508374 6.469233 -1.2679441
1.169165 6.3951974 -1.2409227
1.0089941 6.3862853 -1.2341102
0.85169435 6.3865466 -1.2298324
0.54775387 6.4800096 -1.2412902
0.23393553 6.4805274 -1.237784
0.077509761 6.4807835 -1.2371151
-0.078837886 6.48104 -1.2371675
-0.39202148 6.481554 -1.2394348
-0.54923826 6.4818101 -1.2416568
-0.70710933 6.4820666 -1.2446116
-1.1865575 6.4828453 -1.2579769
-1.3489892 6.483109 -1.2639765
-2.0174756 6.4841857 -1.2962011
-2.3663037 6.484746 -1.3176166
-2.72771 6.4853234 -1.3429306
-3.2989159 6.4862328 -1.388997
-3.4985156 6.4865475 -1.4067322
-3.7034032 6.4868722 -1.4257673
-3.9140282 6.4872055 -1.4461749
-4.0948925 6.4309912 -1.4552449
-5.4252687 6.2897167 -1.5854723
-6.0677733 6.3842759 -1.6812005
-6.5129929 5.9283509 -1.6810657
-6.6539254 5.7693772 -1.6810229
-7.2989254 4.9262619 -1.6808273
-7.541235 4.5765305 -1.6837777
-7.688252 4.4155908 -1.6923245
-8.1080322 4.4000745 -1.7608432
-8.6505175 4.1675892 -1.8328193
-8.7483883 3.9576526 -1.8327894
-8.9288082 3.5310204 -1.8327342
-9.0884762 3.0962059 -1.8326854
-9.1604052 2.8760583 -1.8326632
-9.2270021 2.6542261 -1.8326428
-9.4789305 1.5246392 -1.8325647
-9.5128956 1.295545 -1.8325539
-9.5413332 1.0657024 -1.8325448
-9.5642185 0.83524168 -1.8325375
-9.5815573 0.60430479 -1.8325317
-9.5933151 0.37300414 -1.8325278
-9.5846386 -0.55299318 -1.8325284
-9.5685396 -0.78402221 -1.8325328
-9.546875 -1.0145959 -1.8325387
-9.4869184 -1.473858 -1.8325558
-9.4049072 -1.9297036 -1.8325795
-9.3010445 -2.3810811 -1.8326097
-9.2410011 -2.6047583 -1.8326274
-9.1755857 -2.8269386 -1.8326465
-9.1048288 -3.0474691 -1.8326674
-9.0287886 -3.2662475 -1.8326898
-8.9474897 -3.4831183 -1.8327137
-8.7693453 -3.9107003 -1.8327664
-8.6726027 -4.12115 -1.8327949
-8.5708103 -4.3292236 -1.8328251
-8.2357912 -4.9378862 -1.8329246
-7.857656 -5.5208006 -1.833037
-7.5826364 -5.8935995 -1.8331188
-7.0707908 -6.0648046 -1.7781085
-6.7436471 -6.0725904 -1.732181
-6.2529979 -6.202364 -1.681118
-5.4620361 -6.9106617 -1.6813543
-5.1227002 -7.1664681 -1.6814559
-4.5915575 -7.5188274 -1.6816146
-4.4089842 -7.6276455 -1.6816692
-3.8463037 -7.9272776 -1.6818379
-3.6540868 -8.0180178 -1.6818954
-3.2633789 -8.1854877 -1.6820126
-3.0650878 -8.2621136 -1.6820719
-2.6632471 -8.4009304 -1.6821924
-2.4599218 -8.463027 -1.6822535
-1.8417627 -8.6197023 -1.6824391
-1.6333593 -8.6619349 -1.6825017
-1.2137988 -8.7312841 -1.6826276
-0.57935059 -8.7971888 -1.6828183
-0.3670117 -8.8089399 -1.6828821
0.69573241 -8.7907753 -1.6832016
0.90759766 -8.7717648 -1.6832653
1.118955 -8.747654 -1.683329
1.7487451 -8.6448221 -1.6835185
2.163789 -8.5510588 -1.6836435
2.3695116 -8.4966908 -1.6837054
2.9780028 -8.3040209 -1.6838888
3.1775391 -8.2300701 -1.683949
3.2015381 -7.731791 -1.5973556
3.9562352 -7.8867459 -1.6841837
4.1454687 -7.7892876 -1.6842408
4.5165968 -7.5808043 -1.6843529
4.8772655 -7.3546309 -1.6844618
5.0534081 -7.2350717 -1.684515
5.3967872 -6.983377 -1.6846188
5.5638375 -6.8513689 -1.6846693
5.7276368 -6.7153649 -1.6847187
6.0451951 -6.4316897 -1.6848149
6.9267869 -6.0736833 -1.7584496
7.8170309 -5.6206098 -1.8377492
7.9505124 -5.430541 -1.8377899
8.2035103 -5.0409942 -1.8378668
8.5470066 -4.4348822 -1.8379713
8.6516504 -4.2274928 -1.8380032
9.0981541 -3.1560147 -1.8381398
9.3028412 -2.4899864 -1.8382026
9.4122849 -2.0384655 -1.8382365
9.4997797 -1.5821801 -1.8382639
9.535244 -1.3525854 -1.838275
9.589468 -0.89115173 -1.8382924
9.6288719 -0.19544128 -1.8383056
9.6270943 0.26917237 -1.8383061
9.6177931 0.50130433 -1.8383038
9.6028757 0.73315364 -1.8382999
9.5562744 1.1954211 -1.8382868
9.2189598 2.784317 -1.8381888
9.149004 3.0058386 -1.8381681
8.6190624 4.2936521 -1.8380116
7.5976219 4.4980674 -1.6853049
7.4867578 4.6799207 -1.685272
7.3715525 4.8590536 -1.6852376
7.2520504 5.0353346 -1.6852021
7.0004539 5.3789868 -1.6851273
6.7325635 5.7100806 -1.6850474
6.5927148 5.8706698 -1.6850058
5.9958057 6.4778366 -1.6848276
5.5120215 6.8948107 -1.684922
5.3442674 7.0259619 -1.6849698
8.5342627 0.842677 -1.8379787
8.483633 1.2532787 -1.8379644
8.3232174 2.0647418 -1.8379179
8.2709179 2.2648864 -1.8379027
8.2138033 2.463706 -1.8378859
8.1519136 2.6610887 -1.8378677
8.0852633 2.8569157 -1.8378481
8.0139008 3.0510712 -1.837827
7.8572311 3.4339232 -1.8377807
7.7720118 3.6223998 -1.8377556
7.6822653 3.8087621 -1.8377289
7.4893942 4.1746998 -1.8376716
7.3864012 4.3540673 -1.8376411
7.0557032 4.3918357 -1.7812119
6.4663229 4.4715834 -1.6849647
6.3564453 4.6261621 -1.6849321
6.2428904 4.7780466 -1.6848981
5.8806787 5.2166114 -1.6847903
5.7530174 5.3568201 -1.6847521
5.6220016 5.4939027 -1.6847131
5.3502488 5.7583666 -1.6846319
5.2096581 5.8855991 -1.68459
4.9194822 6.1296897 -1.6845031
4.7700729 6.2464037 -1.6844586
3.9836133 6.7746286 -1.6843721
3.4834228 7.0451035 -1.6844122
3.0054736 6.46661 -1.5283116
2.4543407 6.4675426 -1.4825897
2.2775438 6.4678431 -1.4696323
1.7638623 6.4687061 -1.4370019
1.5973486 6.4689856 -1.4280864
1.2553271 6.3949571 -1.3967364
1.0943115 6.3860474 -1.3886185
0.77958006 6.3865695 -1.3789419
0.16186035 6.4805479 -1.3893552
0.0054980465 6.4808054 -1.3889778
-0.15087402 6.4810619 -1.3894083
-0.30742675 6.481318 -1.3906492
-0.62185055 6.4818311 -1.3955754
-0.78007811 6.4820895 -1.3992763
-1.261162 6.4828672 -1.4154665
-1.4243213 6.4831324 -1.4226131
-1.7561231 6.4836655 -1.4396597
-2.0967772 6.4842114 -1.4605592
-2.4482958 6.4847727 -1.485582
-2.8129296 6.4853539 -1.5150665
-3.4670312 7.0420909 -1.6822801
-3.6356688 6.9559813 -1.6821742
-3.9663963 6.7716651 -1.6819566
-4.1283054 6.6735778 -1.6818451
-4.4244142 6.4362411 -1.6739194
-5.1899805 5.8835058 -1.6814632
-5.7321191 5.3555932 -1.6812992
-5.9834666 5.0726829 -1.6812232
-6.1039453 4.9267721 -1.6811864
-6.3341894 4.6264682 -1.6811166
-6.6898389 4.4077682 -1.7170221
-7.3611765 4.3560839 -1.8332074
-7.4639745 4.1771812 -1.833176
-7.6564989 3.8122277 -1.8331174
-7.8312206 3.4384351 -1.8330641
-7.9117723 3.248493 -1.8330394
-7.9877295 3.0566692 -1.8330162
-8.0590334 2.8630719 -1.8329943
-8.125659 2.6678185 -1.8329738
-8.1875629 2.4710197 -1.8329548
-8.3872557 1.6706445 -1.8328931
-8.4579735 1.2641882 -1.8328711
-8.4859619 1.0597949 -1.8328623
-8.5090132 0.85479188 -1.8328547
-8.5271387 0.64929563 -1.8328489
-8.5403023 0.44342163 -1.8328445
-8.548501 0.23729065 -1.8328416
-8.551733 0.031020507 -1.8328402
-8.4668798 -1.2027795 -1.8328631
-8.4354544 -1.4066687 -1.8328722
-8.3578949 -1.8118771 -1.8328946
-8.2609081 -2.2128909 -1.8329228
-8.2051954 -2.411525 -1.8329391
-8.0795116 -2.8044949 -1.832976
-7.9350438 -3.1909637 -1.8330188
-7.5911279 -3.9408307 -1.8331206
-7.4939742 -4.1228619 -1.8331493
-7.3924656 -4.3024902 -1.8331795
-7.2866602 -4.4796309 -1.8332108
-7.176621 -4.6541767 -1.8332437
-6.9440722 -4.9950604 -1.8333127
-6.8217087 -5.1612034 -1.8333492
-6.4310498 -5.6413116 -1.8334657
-5.4339938 -6.0707769 -1.746206
-5.1807618 -6.0766711 -1.711447
-4.3352585 -6.5401821 -1.6816938
-4.176362 -6.6430407 -1.6817412
-4.0150146 -6.742033 -1.6817896
-3.3471825 -7.098341 -1.6819897
-3.1750879 -7.1772337 -1.6820413
-3.0011327 -7.2519574 -1.6820935
-2.8254199 -7.3224669 -1.6821461
-2.288784 -7.5083194 -1.6823071
-2.1070752 -7.5615911 -1.6823616
-1.9241406 -7.610455 -1.6824164
-1.5549657 -7.6949081 -1.6825273
-1.1821191 -7.7614608 -1.6826391
-0.99459958 -7.7879772 -1.6826956
-0.80647457 -7.809967 -1.682752
-0.61788082 -7.8274131 -1.6828086
-0.050288085 -7.8524008 -1.6829792
0.13913573 -7.8515863 -1.6830362
0.32850096 -7.8462186 -1.6830932
0.51767576 -7.8362718 -1.6831502
0.70657223 -7.8217711 -1.6832069
0.89505857 -7.8027177 -1.6832637
1.2704151 -7.7509899 -1.6833766
1.8277197 -7.6396055 -1.6835444
2.1941845 -7.5430646 -1.6836548
2.3755615 -7.4881845 -1.6837094
2.5555811 -7.4289403 -1.6837635
2.7341161 -7.3653746 -1.6838174
3.0863378 -7.2254004 -1.6839236
3.4314356 -7.0685806 -1.6840277
3.9339111 -6.8025742 -1.6841793
4.0969677 -6.7058978 -1.6842287
4.2576661 -6.6053147 -1.6842772
5.0534716 -6.083508 -1.6949995
5.3018212 -6.0780072 -1.7286052
5.5602198 -6.0721159 -1.7645711
5.8295798 -6.0658045 -1.8030868
6.0873337 -6.0355864 -1.8372283
6.2312741 -5.8871355 -1.837272
6.3716259 -5.73525 -1.8373146
6.5082569 -5.5800171 -1.837356
6.641108 -5.4215245 -1.8373961
7.0161667 -4.9274449 -1.83751
7.3545017 -4.4074745 -1.8376129
7.4588037 -4.228869 -1.8376446
7.5587692 -4.0477905 -1.837675
7.654326 -3.8643484 -1.8377041
7.7454343 -3.6786489 -1.8377318
7.8320117 -3.4908047 -1.8377583
7.9140429 -3.3009181 -1.8377835
8.1323042 -2.7201395 -1.8378503
8.1956444 -2.5232131 -1.8378696
8.2541895 -2.324811 -1.8378879
8.3079538 -2.125062 -1.8379043
8.4009027 -1.7219385 -1.8379332
8.4400434 -1.5188055 -1.8379453
8.4742775 -1.31479 -1.8379561
8.5035591 -1.1100012 -1.8379654
8.5279055 -0.90457332 -1.8379731
8.5472651 -0.69860774 -1.8379794
8.5616598 -0.49223813 -1.8379841
8.5710545 -0.28557679 -1.8379873
8.5748634 0.12812133 -1.8379894
8.5692816 0.33491942 -1.8379883
8.558691 0.54151613 -1.8379855
8.5225677 0.95365113 -1.8379754
8.3456688 1.9721423 -1.8379245
8.2956057 2.172859 -1.8379098
8.2407026 2.3723028 -1.8378938
8.1810007 2.5703619 -1.8378762
8.1165524 2.7669189 -1.8378574
8.047348 2.961859 -1.8378369
7.8118358 3.5358484 -1.8377672
7.7241502 3.7231958 -1.8377414
7.6319971 3.9083714 -1.8377141
6.8650975 4.3981552 -1.7473947
6.5400047 4.415936 -1.691275
6.2956591 4.7084312 -1.6849139
6.1801219 4.8588157 -1.6848795
5.8122458 5.292623 -1.6847699
5.6827636 5.4311571 -1.6847312
5.41395 5.6986365 -1.684651
5.2747946 5.8274217 -1.6846093
5.1325636 5.9528122 -1.684567
4.8392429 6.1930957 -1.6844792
4.6883249 6.307848 -1.6844342
4.5346971 6.418932 -1.684388
4.2197022 6.6299486 -1.6843346
4.0586228 6.7299023 -1.6843611
3.7294188 6.9179845 -1.6844031
3.5614891 7.0059886 -1.6844147
2.7184911 6.4670959 -1.5035199
2.5368505 6.4674034 -1.4889276
2.1834276 6.4680004 -1.4630892
2.0110791 6.4682908 -1.4517556
1.8412793 6.4685764 -1.4414297
1.3447559 6.469409 -1.4161729
0.85168457 6.3864503 -1.380873
0.54774898 6.4799118 -1.3937386
0.39061522 6.4801722 -1.391362
0.23393066 6.4804296 -1.3898021
0.077504881 6.4806857 -1.3890513
-0.078837886 6.4809446 -1.38911
-0.70709962 6.4819698 -1.3974683
-0.86580563 6.4822278 -1.40162
-1.3489648 6.4830103 -1.4192101
-1.8470557 6.4838109 -1.4449068
-2.1904247 6.4843616 -1.4668906
-2.3662646 6.484642 -1.4794382
-2.9138427 6.4855137 -1.5238317
-3.3886766 7.0803819 -1.6823283
-3.5582616 6.9961448 -1.6822233
-3.7257373 6.9078426 -1.6821164
-3.8910253 6.8155222 -1.6820074
-4.054028 6.7192392 -1.6818967
-4.2146387 6.6190538 -1.6817842
-4.9796824 6.0629148 -1.6815269
-5.2660203 5.8153954 -1.6814404
-5.9267869 5.1389036 -1.6812402
-6.2824512 4.6965976 -1.6811323
-6.3936715 4.5436049 -1.6810986
-7.2339549 4.3900537 -1.813563
-7.5176315 4.0796704 -1.8331598
-7.6137252 3.8970921 -1.8331305
-7.8752441 3.3362138 -1.8330506
-7.95332 3.1452477 -1.8330266
-8.0267773 2.9524591 -1.8330042
-8.3682079 1.7637384 -1.832899
-8.4082613 1.5613703 -1.8328866
-8.4990187 0.94928157 -1.832858
-8.5348482 0.53828853 -1.8328463
-8.545332 0.33225891 -1.8328427
-8.5508547 0.12603943 -1.8328407
-8.5514011 -0.080255128 -1.8328401
-8.5232468 -0.69837159 -1.8328472
-8.5039549 -0.90376037 -1.8328526
-8.4797115 -1.108631 -1.8328594
-8.4164495 -1.5163146 -1.8328776
-8.2314501 -2.3201981 -1.8329315
-8.1101313 -2.7145376 -1.832967
-7.9699607 -3.1025822 -1.8330084
-7.8929687 -3.2939773 -1.8330311
-7.5392771 -4.0393109 -1.833136
-7.4397607 -4.220067 -1.8331654
-7.3359227 -4.3983607 -1.8331962
-7.2278366 -4.5741124 -1.8332285
-7.1155224 -4.7472143 -1.8332618
-6.8785496 -5.0850487 -1.8333323
-6.0739694 -6.0247979 -1.8335721
-5.554111 -6.0679245 -1.763028
-4.8650537 -6.1553407 -1.6815352
-4.7152734 -6.2710657 -1.6815802
-4.5627732 -6.3831444 -1.6816258
-4.0896387 -6.6969223 -1.6817673
-3.9270117 -6.793817 -1.6818161
-3.7621093 -6.8867698 -1.6818653
-3.595 -6.9757209 -1.6819154
-3.4258008 -7.060617 -1.6819662
-2.9065673 -7.2905192 -1.6821218
-2.7299414 -7.3587375 -1.6821747
-1.8249755 -7.634985 -1.6824462
-1.4547315 -7.7146268 -1.6825573
-1.2682617 -7.747736 -1.6826134
-1.0810449 -7.7763271 -1.6826695
-0.89318848 -7.8004026 -1.6827259
-0.70479977 -7.819941 -1.6827825
-0.51597655 -7.8349309 -1.6828393
-0.13753417 -7.8512292 -1.682953
0.051889647 -7.8525305 -1.6830101
0.24128906 -7.8492599 -1.683067
0.61960936 -7.8290176 -1.6831807
0.99653316 -7.7905483 -1.6832942
1.1842041 -7.7645011 -1.6833507
1.9270068 -7.6153107 -1.6835742
2.1102099 -7.5668583 -1.6836294
2.4728563 -7.4567733 -1.6837387
2.6520801 -7.3951917 -1.6837927
3.00583 -7.2591376 -1.6838994
3.1801465 -7.1847501 -1.683952
3.5231738 -7.0234494 -1.6840554
4.0221581 -6.7509131 -1.684206
4.1839452 -6.6521235 -1.6842549
4.5001612 -6.4429674 -1.6843504
4.6543846 -6.3327222 -1.684397
4.8059034 -6.2187853 -1.6844428
5.4398975 -6.0748796 -1.747702
5.7040772 -6.0687661 -1.7850159
5.9798193 -6.0622129 -1.8249975
6.5803952 -5.4949255 -1.8373778
6.7111669 -5.3347149 -1.8374174
6.8380418 -5.1713939 -1.837456
6.9609179 -5.0050492 -1.8374933
7.0797606 -4.8357859 -1.8375294
7.1944823 -4.6637001 -1.8375642
7.4112988 -4.3114514 -1.8376302
7.5132713 -4.1314912 -1.8376613
8.1670504 -2.6141055 -1.8378609
8.2278271 -2.416379 -1.8378795
8.2837934 -2.2172265 -1.8378968
8.4226265 -1.6124853 -1.8379399
8.4591303 -1.4088604 -1.8379513
8.517314 -0.99926877 -1.8379698
8.5556545 -0.58733582 -1.8379822
8.5673485 -0.38078797 -1.8379861
8.575757 0.032843016 -1.8379894
8.5724802 0.23968506 -1.837989
8.5326462 0.85889888 -1.8379784
8.4481049 1.473601 -1.8379542
8.4100485 1.6769439 -1.8379432
8.367095 1.8792993 -1.8379307
8.2090912 2.4793169 -1.8378844
8.0798187 2.8722742 -1.8378465
8.0080805 3.0662982 -1.8378253
7.9316893 3.258527 -1.8378026
7.8506832 3.4488573 -1.8377787
7.5804343 4.0073156 -1.8376986
7.4814401 4.1889281 -1.8376694
7.3781004 4.3681016 -1.8376386
7.0274024 4.3927784 -1.7761726
6.6814842 4.4041882 -1.7151026
6.4577975 4.4838595 -1.6849622
6.3476415 4.638236 -1.6849295
6.2337842 4.7898984 -1.6848954
5.9952731 5.0847583 -1.6848245
5.7428074 5.3677368 -1.6847491
5.6115379 5.5045729 -1.6847099
5.0545945 6.0190072 -1.6845436
4.9078221 6.1390195 -1.6844997
4.7581787 6.2554493 -1.6844549
7.6843162 0.75875241 -1.837723
7.6637449 0.94388241 -1.8377173
7.5753317 1.4955341 -1.8376918
7.4472117 2.0393243 -1.8376545
7.2158298 2.7472241 -1.8375863
7.1473827 2.920445 -1.8375661
7.0747752 3.0919609 -1.8375447
6.9980612 3.2616742 -1.837522
6.8324218 3.5952857 -1.8374729
6.7436132 3.7589879 -1.8374466
6.4538522 4.2365637 -1.8373605
6.0360398 4.3929663 -1.7767254
5.2951856 4.6972275 -1.6846131
5.180244 4.8234849 -1.6845788
5.0622802 4.9469347 -1.6845436
4.9413719 5.0674925 -1.6845076
4.6910205 5.2996716 -1.6844327
4.5617185 5.4111595 -1.6843942
4.4297657 5.5194945 -1.6843547
4.1582127 5.7264256 -1.6842735
2.8264062 6.4861732 -1.6838746
2.6690185 6.5522132 -1.6838106
2.1882422 6.7279773 -1.6837929
1.6959912 6.8684044 -1.6837465
1.5298096 6.9072242 -1.6837246
1.3627294 6.9420104 -1.6836995
1.0942919 6.3859482 -1.5419761
0.17663085 7.0711889 -1.683436
0.0060156249 7.0731797 -1.6833862
-0.33509275 7.0647864 -1.6832774
-0.50539058 7.0544004 -1.6832186
-0.67537594 7.0398984 -1.683157
-1.1824902 6.9717307 -1.6829394
-1.3502442 6.940824 -1.6828521
-1.6832665 6.8670263 -1.6827047
-2.1750879 6.7263889 -1.6824665
-2.336587 6.6716366 -1.6823829
-2.4966991 6.612999 -1.6822972
-2.9680321 6.4145322 -1.6821325
-3.1218066 6.3408933 -1.6820861
-3.2737548 6.2635789 -1.6820402
-3.4237988 6.1826172 -1.6819949
-3.5718408 6.0980735 -1.6819502
-3.7177978 6.0099826 -1.6819062
-3.8615868 5.9184103 -1.6818627
-4.0031199 5.8233871 -1.68182
-4.8005028 5.1843638 -1.681579
-4.9240575 5.0669446 -1.6815416
-5.1624708 4.8233643 -1.6814694
-5.2772021 4.6973472 -1.6814346
-5.3976707 4.576056 -1.684148
-5.4973974 4.437191 -1.6813678
-6.02 4.3969846 -1.7742081
-6.3203416 4.3865528 -1.8310002
-6.6297555 3.9232581 -1.8334264
-6.8957715 3.4334564 -1.8333453
-7.0531592 3.0968103 -1.8332973
-7.1257224 2.9257426 -1.8332751
-7.2583594 2.5786262 -1.8332343
-7.3741307 2.2255261 -1.8331988
-7.5155711 1.6864581 -1.8331552
-7.5540233 1.5046753 -1.8331432
-7.6177149 1.1385962 -1.8331233
-7.6636963 0.76987183 -1.8331088
-7.6800194 0.58479249 -1.8331034
-7.6918697 0.39937195 -1.8330995
-7.702168 0.027939452 -1.8330956
-7.6945605 -0.34355164 -1.833097
-7.6840429 -0.52905458 -1.8330997
-7.6690674 -0.71424866 -1.8331039
-7.6496139 -0.8990289 -1.8331094
-7.5974317 -1.2669208 -1.8331244
-7.5275683 -1.6318768 -1.8331445
-7.4402099 -1.9930434 -1.8331699
-7.3900342 -2.1719449 -1.8331847
-7.2768211 -2.5258682 -1.833218
-7.2138476 -2.7006862 -1.8332365
-7.1466746 -2.8739352 -1.8332564
-7.0753613 -3.0455217 -1.8332776
-6.6579537 -3.8749967 -1.8334011
-5.9127245 -4.9394288 -1.8336231
-5.7919726 -5.0807133 -1.8336591
-5.6678562 -5.2190552 -1.8336959
-5.2759767 -5.615572 -1.833813
-5.1391015 -5.7413292 -1.8338538
-4.9992771 -5.8637562 -1.8338957
-4.8564453 -5.9827757 -1.8339382
-4.6800437 -6.0584478 -1.8219905
-4.2369041 -6.068707 -1.7615002
-3.8209326 -6.0776954 -1.7085692
-3.4684813 -6.1574717 -1.6819552
-3.3190429 -6.2395072 -1.6819999
-3.167666 -6.3179221 -1.6820455
-3.0144238 -6.392663 -1.6820912
-2.8594286 -6.4636931 -1.6821377
-2.7027686 -6.530972 -1.6821847
-2.5445166 -6.5944495 -1.682232
